ply
format ascii 1.0
comment Created by Open3D
element vertex 1295
property double x
property double y
property double z
property uchar red
property uchar green
property uchar blue
end_header
-0.697478 0.462029 2.43569 85 72 64
-0.0612996 0.522916 2.033 5 14 0
-0.00113543 0.523848 2.04833 77 92 40
-1.40378 0.351074 2.09166 106 93 69
-0.202636 0.558266 2.2519 149 162 107
-0.923008 0.501131 2.4513 180 171 156
-0.124037 0.641184 2.35353 67 61 45
-0.194286 0.606729 2.06819 21 31 7
-0.208588 0.588139 1.95783 13 22 3
-0.988876 0.540836 2.45652 93 89 80
-0.904037 0.550885 2.44659 24 20 11
-0.215418 0.616257 1.94023 50 59 42
-0.215418 0.616257 1.94023 50 59 42
-1.02296 0.571761 2.44267 44 40 28
-0.665227 0.658046 2.41769 102 92 82
-0.607694 0.662016 2.39482 192 175 159
-0.609987 0.661336 2.39168 192 175 159
-0.365727 0.679107 2.28257 133 117 102
-0.844857 0.639074 2.42114 107 99 88
-0.805285 0.64785 2.38591 48 38 26
-0.670794 0.659353 2.35644 123 110 93
-1.0132 0.654766 2.43365 66 59 49
-1.00014 0.668692 2.37312 109 99 87
-1.39222 0.552323 2.1157 183 176 157
-1.01373 0.670112 2.21119 182 169 152
-1.10218 0.667424 2.24458 135 124 109
-1.03597 0.685491 2.10483 192 179 160
-0.904567 0.701925 1.95167 162 148 132
-1.34929 0.636623 2.10048 68 65 48
-1.03292 0.693957 1.96944 189 176 160
-0.663137 0.740083 1.58385 165 151 138
-1.0763 0.707751 1.86211 153 140 124
-0.921074 0.72853 1.71506 160 146 133
-1.38749 0.691584 1.98053 166 152 139
-0.934054 0.740747 1.62196 192 178 162
-0.920907 0.737898 1.61743 156 143 127
-0.744354 0.748506 1.52999 158 144 131
-1.32533 0.713546 1.86003 185 172 156
-0.931807 0.740271 1.59411 157 143 130
-0.95269 0.738262 1.54781 196 182 169
-0.831922 0.746372 1.52483 167 155 141
-1.17753 0.72903 1.67481 154 141 125
-1.14157 0.721568 1.64873 185 170 153
-1.11746 0.737483 1.64886 160 147 131
-1.06288 0.736076 1.61539 196 183 167
-1.05558 0.741893 1.61708 166 153 137
-0.854601 0.747187 1.44989 160 144 131
-1.23763 0.731457 1.685 160 147 131
-1.24455 0.731383 1.63682 184 171 155
-1.24455 0.731383 1.63682 184 171 155
-1.13174 0.741486 1.6242 202 189 173
-0.977952 0.746705 1.44999 186 172 159
-0.912483 0.750411 1.38933 188 172 159
-1.49312 0.713259 1.75442 167 153 140
-1.36969 0.739864 1.71085 154 138 123
-1.37025 0.736892 1.69664 181 167 151
-1.3701 0.719768 1.66962 154 141 125
-1.33504 0.732253 1.70801 160 148 132
-1.3241 0.7295 1.688 182 166 150
-1.3431 0.73198 1.65597 153 137 122
-1.3431 0.73198 1.65597 153 137 122
-1.182 0.742863 1.53659 165 151 138
-1.10349 0.745126 1.48277 175 161 148
-1.05858 0.754852 1.48637 203 189 176
-1.03768 0.747632 1.47621 182 168 155
-1.05163 0.752747 1.43838 192 178 165
-1.00268 0.756623 1.42217 158 144 131
-1.49704 0.72092 1.70194 178 165 149
-1.4385 0.726347 1.69614 182 169 153
-1.4385 0.726347 1.69614 182 169 153
-1.44644 0.723999 1.69093 154 141 125
-1.44644 0.723999 1.69093 154 141 125
-1.4308 0.729495 1.6724 190 177 161
-1.39921 0.729765 1.66562 158 145 129
-1.38845 0.733744 1.64482 178 165 149
-1.36656 0.733606 1.64808 180 164 149
-1.27463 0.739411 1.57692 154 141 125
-1.19854 0.746065 1.53981 151 138 122
-1.20548 0.750889 1.51878 139 125 112
-1.13324 0.749282 1.44132 136 122 109
-1.07908 0.757298 1.42555 189 176 162
-1.05101 0.75304 1.39984 140 126 113
-1.00524 0.7417 1.32174 175 161 148
-0.908889 0.762443 1.28541 182 168 155
-1.55237 0.718529 1.67569 152 139 123
-1.40388 0.731174 1.60183 139 126 110
-1.3219 0.741137 1.55108 146 133 117
-1.30318 0.741218 1.54216 150 137 121
-1.26603 0.751263 1.54857 145 132 116
-1.19049 0.75104 1.4544 142 130 116
-1.15433 0.741846 1.40874 155 141 128
-1.04807 0.753663 1.29357 144 131 118
-0.977796 0.758098 1.2931 169 155 142
-1.52954 0.719382 1.64705 177 164 148
-1.43544 0.737509 1.59498 141 128 112
8.04923 -10.3134 20.6977 162 185 198
8.44379 -9.70069 18.5788 53 74 60
8.47793 -9.56805 19.1339 33 46 36
0.423714 -1.36316 3.10218 32 30 31
0.425274 -1.36292 3.10528 32 30 31
0.526457 -1.21567 2.66571 30 26 23
0.407067 -1.25316 2.93498 33 35 34
0.425158 -1.2219 3.08831 50 48 49
0.582957 -1.13973 2.66815 81 68 60
-1.30314 -0.624173 2.05568 45 48 36
0.633918 -1.62926 4.76607 61 57 56
-1.27511 -0.571429 2.01378 97 90 80
0.635673 -1.5374 4.93958 35 34 32
-0.290746 -0.827936 2.57823 63 45 47
-1.02323 -0.570258 2.3672 100 101 85
-0.269822 -0.679941 2.62006 35 27 27
-0.977808 -0.561999 2.38948 193 189 177
0.698311 -0.599214 2.50176 61 54 49
-1.34624 -0.398953 2.01638 114 107 91
-0.222363 -0.48445 2.28289 87 81 70
-0.744377 -0.435228 2.33815 175 165 155
-0.618241 -0.42914 2.32868 79 74 68
-0.618802 -0.429375 2.32785 79 74 68
-1.35896 -0.312196 2.02817 43 45 34
0.125439 -0.428633 2.36044 150 140 131
-1.32367 -0.290423 2.04392 174 161 143
-1.32764 -0.281841 2.03322 126 119 102
-0.785657 -0.356386 2.36009 92 81 69
-1.34934 -0.262569 2.02886 187 174 158
-1.34778 -0.263018 2.03295 187 174 158
-1.33328 -0.259887 2.0534 133 120 104
0.0690724 -0.301503 2.33636 124 105 88
0.226465 -0.278101 2.45518 56 41 30
-0.180589 -0.189903 2.4651 21 17 11
-0.671502 -0.141959 2.39281 26 21 18
-0.39004 -0.145208 2.61489 0 0 0
-0.960452 -0.104361 2.38901 89 63 38
0.398813 -0.0452958 2.29009 40 35 5
0.299744 -0.028582 2.19346 97 99 52
0.270245 -0.0244643 2.34419 177 179 138
0.270245 -0.0244643 2.34419 177 179 138
0.257616 -0.00504956 2.3254 32 45 17
0.264897 -0.00165442 2.30504 22 33 2
0.255349 -0.00789706 2.16451 48 44 17
0.25432 0.0980358 2.39931 7 12 5
-1.32971 0.0347726 2.06181 160 148 124
-0.788482 0.0686829 2.40353 101 80 58
0.109971 0.214514 2.42679 77 67 58
-1.14865 0.127188 2.2339 218 206 184
-0.952949 0.227199 2.44566 108 74 52
-0.297664 0.31934 2.67578 63 42 41
-0.196761 0.320345 2.35917 43 44 39
-1.14721 0.226757 2.23277 19 14 4
-1.38921 0.221217 2.09238 97 88 73
-1.39025 0.231845 2.09291 86 77 62
-1.38234 0.238007 2.09091 158 146 127
0.115269 0.484591 2.10941 115 117 70
-0.0876835 0.483971 2.27072 124 135 73
-0.921419 0.415833 2.44386 30 28 15
-0.0659504 0.52658 2.13964 49 58 27
-0.990838 0.463731 2.4354 129 123 109
-1.26861 0.393587 2.1133 186 163 145
-0.230067 0.663068 2.11702 7 12 5
-0.210182 0.620882 2.07703 136 148 112
-0.730178 0.660805 2.36523 162 149 133
-1.1606 0.588113 2.2254 200 188 164
-0.910472 0.660592 2.27826 152 136 121
-1.35067 0.539226 2.11368 178 165 148
-1.16378 0.633668 2.1924 63 59 47
-0.66011 0.748232 1.46967 140 126 113
-1.04423 0.735494 1.66271 191 178 162
-1.39835 0.711094 1.85817 183 170 154
-1.14894 0.731427 1.66033 159 146 130
-0.994649 0.746614 1.5863 193 180 164
-0.881106 0.747419 1.48981 165 151 138
-0.907637 0.747568 1.43895 193 179 166
-1.2499 0.730287 1.68673 190 177 161
-1.04002 0.746115 1.49176 198 184 171
-1.00672 0.752567 1.48371 178 164 151
-1.46156 0.716174 1.77988 170 156 143
-1.32655 0.730271 1.67854 154 138 122
-1.30682 0.733603 1.68745 157 141 126
-1.21781 0.743652 1.59193 185 172 156
-1.21932 0.741941 1.56617 152 139 123
-1.01278 0.754051 1.41942 190 178 164
-1.01004 0.75498 1.42237 190 178 164
-1.33209 0.726215 1.61674 147 134 118
-1.27871 0.739129 1.57946 175 162 146
-1.25882 0.742629 1.56306 158 145 129
-0.974094 0.757906 1.2998 135 121 108
-1.47545 0.726574 1.68816 181 168 152
-1.43502 0.731755 1.62202 152 140 124
-1.14971 0.747964 1.42853 184 170 157
-1.06029 0.767084 1.30795 173 161 147
0.504222 -1.58166 3.8352 61 59 62
0.683121 -1.01753 2.48268 65 57 56
0.54747 -1.52837 4.41606 38 34 33
0.49008 -1.31052 3.72416 60 56 53
-1.00882 -0.576931 2.34965 15 16 10
-0.00829405 -0.930131 3.56693 72 68 67
0.0927746 -0.982338 3.76877 72 68 67
0.0717445 -0.967086 3.62577 31 22 25
0.103522 -0.960247 3.5211 21 17 15
-1.32197 -0.44066 2.01433 100 93 75
-0.317225 -0.659984 2.63919 29 24 21
0.0704336 -0.520706 3.28315 0 0 0
-1.34943 -0.257299 2.04152 145 132 116
-1.35022 -0.256617 2.03895 145 132 116
-0.872934 -0.265126 2.37032 122 96 73
0.87888 -0.545361 4.63963 0 0 0
0.728901 -0.47833 4.1931 25 19 19
0.729102 -0.490775 4.15371 108 107 105
0.717188 -0.459539 4.13588 114 117 110
-0.188375 -0.265324 2.46605 83 69 66
0.137216 -0.253909 2.38996 130 107 89
-0.977148 -0.252703 2.39569 112 87 67
0.207015 -0.292675 3.50414 104 87 89
-1.00068 -0.156387 2.39092 139 116 98
-0.691303 -0.129042 2.38277 33 23 22
-0.438587 -0.129421 2.60612 35 25 24
-1.37225 -0.119792 2.04414 157 145 119
-1.37235 -0.119816 2.04403 157 145 119
-1.3122 -0.0937194 2.06449 71 68 51
-0.177634 -0.00695577 2.33578 34 34 25
0.0726523 -0.0138164 2.3798 28 18 9
0.148485 0.00895448 2.4268 32 29 22
0.244458 0.0027527 2.41936 42 42 32
0.266537 0.0196216 2.23367 25 34 14
-0.852769 0.00706201 2.40581 88 60 46
-0.850364 0.00663425 2.41169 88 60 46
0.240993 0.0739182 2.35339 14 21 5
-0.194138 0.116723 2.70205 23 17 17
-0.865557 0.154886 2.42639 136 103 88
-0.49115 0.227891 2.62948 42 31 27
-1.38117 0.191425 2.08788 177 162 139
-0.880749 0.244623 2.4314 105 77 63
0.0972577 0.463715 2.29586 21 47 0
-0.0335036 0.463978 2.30948 65 31 15
-0.0620975 0.470364 2.23259 153 169 108
-0.013084 0.49438 2.11802 18 10 0
-0.933385 0.472169 2.4528 110 103 87
-0.222397 0.556487 2.10492 96 114 67
-1.32712 0.387409 2.09828 144 131 114
-0.501003 0.647054 2.4841 49 46 41
-1.02827 0.662346 2.28279 129 117 105
-0.919732 0.693649 2.04531 160 147 131
-0.562851 0.732136 1.70644 160 146 133
-1.41223 0.647996 2.1071 38 33 22
-1.36453 0.677539 2.10173 142 131 117
-1.4272 0.68287 2.04053 119 107 93
-0.800152 0.741074 1.54907 157 143 130
-1.00056 0.734397 1.65366 194 181 165
-0.890619 0.747375 1.55229 185 171 158
-0.890619 0.747375 1.55229 185 171 158
-1.28448 0.722903 1.75504 155 142 126
-1.02306 0.748746 1.53887 184 171 155
-0.92179 0.752788 1.39188 150 134 121
-0.881794 0.750413 1.37294 185 169 156
-1.33382 0.73209 1.6605 195 179 164
-1.045 0.752792 1.38101 162 148 135
-1.2136 0.762984 1.53874 144 131 115
-1.02908 0.757095 1.34479 186 172 159
0.799571 -1.47659 2.63337 83 79 80
0.452108 -1.46659 3.35493 71 69 72
0.450673 -1.46666 3.3541 71 69 72
0.0910848 -0.428703 2.33007 133 123 111
-1.30284 -0.205903 2.05373 58 59 41
-0.805336 -0.221805 2.37319 167 132 113
-0.201207 -0.154768 2.34302 66 56 45
-1.34995 -0.0821103 2.05651 207 193 166
-1.26962 -0.0297299 2.08752 227 213 177
-0.702664 0.0240232 2.399 124 96 74
-0.160102 0.2742 2.76954 22 17 15
-0.0529316 0.464309 2.25802 64 21 6
-0.226157 0.650576 2.37426 35 30 24
-0.668604 0.597379 2.41914 26 27 22
-0.43628 0.674206 2.39894 161 143 123
-0.253012 0.690589 2.07798 152 143 128
-1.38794 0.474323 2.10528 84 78 66
-1.38785 0.474209 2.10542 84 78 66
-0.708883 0.665901 2.23617 182 163 148
-1.03264 0.688266 2.08042 162 146 130
-1.37686 0.632337 2.09209 88 82 70
-1.24058 0.685888 2.07314 137 123 110
-0.795067 0.747673 1.53833 167 153 140
-0.939586 0.741568 1.58165 186 174 159
-1.06029 0.742685 1.61143 170 157 141
-1.06029 0.742685 1.61143 170 157 141
-1.04079 0.750055 1.51499 162 149 133
-1.02667 0.753344 1.37342 127 113 100
-0.960731 0.747245 1.29188 143 129 116
-0.11354 -0.968098 2.90743 69 61 58
-0.165134 -0.849773 2.57357 19 21 20
0.402724 -0.788884 3.06132 86 67 60
-0.510447 -0.490299 2.28301 127 117 107
-1.35426 -0.299355 2.02565 192 185 159
-0.691976 -0.184962 2.37456 28 23 20
0.274588 0.0619514 2.23514 14 20 8
-1.34396 0.0266044 2.07035 206 193 167
-0.441456 0.143485 2.59728 31 27 24
0.102404 0.423358 2.37667 128 142 65
-0.570275 0.673346 2.17651 203 184 167
-0.560156 0.677936 2.18983 203 184 167
-1.11163 0.676659 2.18023 172 156 140
-1.41452 0.670311 2.11097 41 34 28
-0.882128 0.737226 1.56562 161 147 134
-1.49965 0.725836 1.67149 150 137 121
8.73586 -8.92891 20.1752 117 140 174
0.686468 -0.898255 2.47094 63 56 53
0.64588 -1.54524 5.06491 54 51 44
-0.202395 -0.800031 2.58983 30 26 25
-0.482294 -0.710728 2.60791 83 72 68
0.367412 -0.75859 2.81496 75 63 52
0.366077 -0.758528 2.81354 75 63 52
-0.53944 -0.633082 2.58332 33 27 27
0.696185 -0.384038 2.60777 34 27 21
0.274097 -0.139767 2.51732 47 36 33
0.218886 0.0983254 2.28768 8 14 2
0.218886 0.0983254 2.28768 8 14 2
-1.11955 0.424517 2.27071 74 70 58
-0.205601 0.562608 2.20153 86 107 48
-0.178192 0.528274 1.98376 112 143 43
-1.14753 0.507779 2.25402 221 199 174
-0.658323 0.65807 2.27255 208 189 174
-1.22197 0.705434 1.8504 181 169 152
-0.918398 0.753882 1.45307 157 143 130
-1.12687 0.758605 1.45518 155 141 128
-1.12687 0.758605 1.45518 155 141 128
-1.27687 -0.458988 2.02878 88 81 65
-0.938993 -0.422416 2.35752 140 128 114
-0.68126 -0.0739831 2.39126 35 27 24
-0.377634 0.112701 2.71777 18 14 11
-0.377634 0.112701 2.71777 18 14 11
-0.366186 0.19463 2.65282 66 61 57
-0.348245 0.305627 2.59872 78 57 57
-1.19086 0.192678 2.17116 195 175 148
-0.717311 0.359678 2.25349 146 137 129
-0.283171 0.44034 2.70282 139 127 117
-0.0947568 0.512454 2.27557 22 19 10
-0.685418 0.540018 2.4277 35 31 28
-0.324142 0.644291 2.4697 25 24 20
-0.907618 0.643571 2.3951 124 112 99
0.841565 -1.45073 2.59014 51 49 50
8.7458 -8.97972 18.9386 23 33 35
0.679942 -1.06328 2.53565 36 36 36
-0.336878 -0.638453 2.5943 27 23 20
-0.891448 -0.533201 2.38771 39 32 25
-1.3167 -0.40094 2.03916 109 105 84
-0.417616 -0.86269 4.80564 125 122 107
-0.682465 -0.164544 2.36437 36 32 31
-0.138998 0.295751 2.82725 35 32 23
0.521806 0.384885 2.65175 9 10 4
-0.398986 0.421465 2.78058 48 39 32
-0.407405 0.420472 2.76753 48 39 32
-0.846409 0.434536 2.43843 151 136 115
-0.789971 0.687019 2.09743 167 151 134
-0.849321 -0.263943 2.35123 115 89 72
-0.659167 -0.0894192 2.39594 28 23 20
-0.0266089 -0.140922 2.38891 81 62 45
0.00282996 0.449402 2.12642 212 72 49
-0.0539402 -0.0372207 2.34923 97 81 55
-0.133774 0.186609 2.62242 29 28 24
-1.06151 0.558056 2.24821 50 46 35
-1.09594 0.744901 1.57509 208 195 179
-0.827633 0.154906 2.43161 118 93 74
0.574176 -1.52149 4.4185 65 63 60
0.566368 -1.3833 4.42465 73 66 66
-0.999629 0.555758 2.48658 40 34 24
0.691279 -0.244138 2.57619 81 67 58
-0.0733339 -0.196837 2.3053 75 60 47
-0.50313 0.701188 1.97191 193 179 162
0.640121 -1.64793 5.00007 69 68 67
0.692195 -0.489978 2.52638 61 54 46
0.113595 0.00857713 2.37254 17 14 12
0.622621 -1.39775 2.63561 95 92 86
-0.201936 0.20506 2.36793 30 26 18
-0.751028 0.750326 1.39514 192 180 168
-0.737054 0.744465 1.57879 146 132 119
-0.699176 0.734764 1.53241 189 175 162
-1.06157 0.737318 1.66353 197 184 168
-0.751286 0.748841 1.54907 201 187 174
-0.895645 0.736272 1.62329 199 185 172
-0.363083 -0.406207 2.53303 0 0 0
-0.00854318 0.27897 2.43185 145 136 124
0.550068 -1.17258 4.07006 63 52 54
-0.107063 -0.207019 3.12731 40 36 35
-1.55306 0.72077 1.70154 150 137 122
-0.457183 -0.369683 2.64773 16 16 14
0.337295 -0.24456 3.55411 23 22 20
0.337295 -0.24456 3.55411 23 22 20
0.377369 -1.46335 2.65327 91 92 96
0.399878 -1.39314 2.91215 43 41 42
-1.32033 -0.77249 2.05554 29 31 30
-1.32254 -0.77072 2.05025 29 31 30
0.399818 -1.34972 2.90273 75 75 73
0.675261 -1.19917 2.44447 45 45 45
-1.32118 -0.744595 2.05901 24 28 27
0.45534 -1.48114 3.48542 51 51 53
0.492587 -1.21094 2.69909 80 70 62
0.537276 -1.60971 4.02956 63 63 63
0.470253 -1.45029 3.55512 39 39 41
0.376984 -1.16641 2.7269 22 21 19
0.376984 -1.16641 2.7269 22 21 19
0.647013 -1.1625 2.66832 31 27 26
0.452097 -1.2921 3.32236 27 29 26
-1.32104 -0.629003 2.05169 96 101 97
0.578515 -1.5795 4.3497 81 76 73
0.553899 -1.56243 4.31209 81 76 73
0.547539 -1.5086 4.2695 40 36 37
0.679135 -1.03885 2.56881 22 21 22
0.628988 -1.69142 4.97939 64 62 63
0.528109 -1.36876 4.03068 25 19 19
0.53286 -1.37131 4.04588 25 19 19
0.389741 -1.008 2.78251 23 12 13
-1.33994 -0.570216 2.00212 116 111 92
-1.34508 -0.564775 2.00295 72 69 50
-1.20293 -0.586915 2.06531 121 107 76
0.582583 -1.40558 4.50656 46 40 40
0.450598 -1.25139 3.73282 59 55 52
-0.305162 -0.811715 2.59479 41 27 27
0.696364 -0.926964 2.60628 51 47 44
0.581931 -1.40571 4.68831 58 54 53
0.594065 -1.36839 4.6678 73 66 64
0.44825 -1.08701 3.57962 28 21 15
0.670167 -0.891767 2.70256 28 28 28
-0.961475 -0.544203 2.36773 129 109 97
-0.365088 -0.643599 2.60314 34 23 21
0.383686 -0.741403 2.75155 38 23 18
0.67322 -0.713127 2.63802 14 15 11
-1.30077 -0.418911 2.02829 79 76 61
-1.02188 -0.508931 2.35657 65 62 55
-0.750422 -0.519941 2.3307 119 103 88
-0.430074 -0.527601 2.32994 235 218 198
0.52503 -0.666581 2.71978 38 25 16
0.52503 -0.666581 2.71978 38 25 16
-0.818197 -0.490843 2.34347 80 70 58
-0.862444 -0.470677 2.3516 96 90 76
-0.276039 -0.493635 2.29893 103 97 81
0.666473 -0.58415 2.55591 65 54 50
-1.37163 -0.368194 2.022 35 29 17
-1.3714 -0.368311 2.02256 35 29 17
-1.00728 -0.445429 2.36744 87 79 68
-0.949959 -0.435186 2.36359 86 76 64
-0.652376 -0.436312 2.34539 64 61 54
-0.392456 -0.454226 2.30181 52 48 39
-0.277099 -0.453277 2.28982 41 41 33
0.696398 -0.547758 2.71075 53 50 43
0.691582 -0.553742 2.67785 25 21 12
-1.38565 -0.332871 2.02427 147 148 134
-0.928318 -0.396778 2.35984 50 45 39
-0.495362 -0.431131 2.5495 82 74 69
-0.424992 -0.41865 2.56352 92 79 73
-0.424992 -0.41865 2.56352 92 79 73
-0.44145 -0.412756 2.31924 84 79 73
-0.225473 -0.414941 2.52641 92 81 77
-0.178158 -0.41571 2.5254 96 86 77
-0.241406 -0.415479 2.3012 33 28 17
-0.186282 -0.382124 2.2896 46 33 26
-1.38554 -0.304163 2.02749 127 125 112
-1.38372 -0.304882 2.03132 127 125 112
-1.38638 -0.291899 2.03008 135 129 115
-1.36723 -0.294861 2.03205 134 126 107
-1.26794 -0.2997 2.05058 122 108 82
0.101852 -0.54652 3.34451 22 11 14
-0.0306292 -0.350634 2.30949 119 107 98
0.701183 -0.426581 2.56525 26 21 11
-1.38587 -0.26648 2.03228 143 136 120
-1.36222 -0.270988 2.02926 182 169 152
-0.817037 -0.314513 2.36397 19 5 1
-1.38409 -0.241538 2.03627 176 169 153
-1.36293 -0.242512 2.03329 142 129 113
-1.29672 -0.222059 2.04681 174 166 144
-0.905761 -0.264753 2.37911 93 67 50
-0.762735 -0.288458 2.36443 79 65 64
-0.205951 -0.306144 2.64365 70 57 52
-0.196843 -0.275723 2.30239 75 63 52
-0.17125 -0.284055 2.29786 29 17 8
0.590314 -0.335622 2.75437 22 13 8
0.590314 -0.335622 2.75437 22 13 8
-1.39099 -0.215089 2.03929 90 83 67
-1.00352 -0.252718 2.39307 26 17 10
0.709393 -0.245006 2.5239 71 61 51
-0.942178 -0.201278 2.38721 33 20 10
-0.942178 -0.201278 2.38721 33 20 10
-0.704461 -0.205397 2.63293 12 9 2
-0.1247 -0.173471 2.30601 23 12 3
-1.34356 -0.15784 2.04741 155 142 120
-1.24468 -0.146553 2.07412 208 193 162
-1.22736 -0.140166 2.09491 133 121 99
-0.477678 -0.141431 2.6673 41 31 29
-1.38611 -0.111024 2.04336 145 133 107
-1.3756 -0.109157 2.04989 148 137 115
-1.34358 -0.105964 2.05238 151 140 118
-0.723542 -0.121121 2.38784 103 86 66
-0.0537247 -0.0953546 2.3312 78 56 43
0.561776 -0.0599583 2.76234 25 18 12
0.392778 -0.0283046 2.29941 77 74 36
-0.875987 -0.0545573 2.4 30 15 2
-0.796507 -0.0736614 2.38618 16 7 0
0.544558 -0.0273816 2.76372 66 59 51
0.263884 -0.0256669 2.40746 17 21 7
-1.38076 -0.0433109 2.06012 148 136 122
-1.00714 -0.0495745 2.39252 117 94 80
0.252838 0.0700613 2.34364 41 47 35
0.272855 0.0292329 2.25816 12 21 0
-0.940822 0.00460974 2.4111 34 10 2
-1.39704 0.00877175 2.06322 170 160 133
-0.948142 0.0276102 2.41461 136 113 99
-0.953212 0.0410878 2.41144 98 81 65
-1.39482 0.0535071 2.07343 197 186 167
-1.38899 0.0381149 2.0705 98 91 73
-1.38892 0.0573025 2.07333 98 90 71
-1.31591 0.0607898 2.07663 127 112 93
-1.1845 0.0666011 2.16954 79 73 52
-0.990647 0.0722787 2.41844 94 69 49
-0.811363 0.105818 2.41415 23 12 3
-0.399732 0.129608 2.71395 13 8 5
0.15321 0.212156 2.45502 64 57 49
-1.16727 0.103787 2.18891 232 219 191
-0.175081 0.378088 2.75607 22 19 14
-1.37605 0.20204 2.08654 154 130 104
-1.29234 0.226936 2.09002 156 139 111
-0.0218406 0.435919 2.38132 59 55 43
-0.0686317 0.42334 2.31895 122 126 75
-1.35093 0.230545 2.09067 158 142 114
-0.791081 0.342722 2.41959 105 93 77
-0.037543 0.473669 2.17529 147 163 102
0.0733126 0.459916 2.16164 18 2 0
0.0582621 0.472646 2.10592 146 114 47
-1.30505 0.289438 2.10958 34 25 10
-1.27685 0.283407 2.1143 133 126 107
-1.12695 0.32261 2.26004 76 68 52
-0.0776296 0.486867 2.29425 107 20 20
-0.0774496 0.495737 2.25103 13 17 0
-0.0774496 0.495737 2.25103 13 17 0
0.023353 0.50129 2.03624 247 97 84
-1.40448 0.286078 2.10099 127 115 101
-1.28732 0.304964 2.09068 69 51 41
-0.942407 0.424313 2.44119 65 61 49
-0.229904 0.579469 2.63813 35 26 19
-0.110558 0.57195 2.37608 193 189 165
-0.181846 0.541758 2.21564 29 42 0
-0.126268 0.539554 2.0837 28 49 0
-1.11774 0.411971 2.28746 74 68 56
-0.963008 0.460999 2.46331 74 71 53
-0.683327 0.520026 2.44649 55 40 33
-0.250019 0.612277 2.47871 41 46 39
-0.170225 0.54347 2.02703 132 159 91
-1.35353 0.35448 2.08926 130 119 99
-0.22217 0.584898 1.95765 59 69 45
-1.41737 0.383376 2.09937 202 187 164
-1.2086 0.44129 2.16261 54 44 31
-1.00564 0.517867 2.47357 63 59 48
-0.876546 0.559648 2.44972 188 179 162
-0.183306 0.665589 2.26392 25 18 10
-0.21789 0.670586 2.25855 91 84 77
-0.216412 0.627706 2.0575 8 18 1
-0.228581 0.641147 2.06366 66 79 50
-0.220936 0.639 2.06023 12 24 1
-0.219702 0.616602 2.02122 71 80 59
-0.209173 0.620834 2.00544 10 19 0
-0.19841 0.586465 1.8763 101 117 83
-0.19841 0.586465 1.8763 101 117 83
-1.41587 0.408875 2.10108 134 122 99
-0.675613 0.617822 2.42863 64 61 56
-0.629991 0.65524 2.45539 131 119 107
-0.339498 0.680322 2.34892 145 129 114
-0.205813 0.693568 2.07536 40 41 35
-0.196777 0.6522 1.91932 31 40 23
-1.42698 0.468531 2.11187 134 126 107
-1.42698 0.468601 2.11206 134 126 107
-1.20024 0.507418 2.17156 206 187 170
-0.453781 0.68143 2.15941 170 151 136
-0.1968 0.693078 1.89296 61 65 51
-1.23443 0.54586 2.15171 226 213 196
-0.928145 0.655453 2.35805 136 124 112
-1.3958 0.515324 2.11087 137 125 111
-1.32156 0.540861 2.1101 139 127 105
-0.705565 0.689489 2.0704 161 148 131
-0.547553 0.701837 1.95486 193 177 161
-0.410772 0.714649 1.90643 141 125 110
-0.410772 0.714649 1.90643 141 125 110
-1.40331 0.567351 2.11707 180 168 144
-0.781235 0.688675 2.01898 180 165 150
-0.626198 0.70439 1.92797 138 122 107
-0.669538 0.707386 1.91406 137 121 105
-1.25001 0.642417 2.12796 48 41 31
-1.00778 0.693452 2.07599 161 145 128
-0.938772 0.689754 2.04449 206 194 178
-0.948223 0.70335 2.03448 190 175 159
-0.607693 0.724442 1.77395 146 133 119
-0.607693 0.724442 1.77395 146 133 119
-0.617263 0.717566 1.75414 184 170 157
-1.07972 0.693128 2.06663 147 134 118
-1.0728 0.681081 2.0092 127 113 94
-0.973401 0.702039 1.92027 179 166 150
-0.912967 0.703598 1.87407 167 154 138
-0.902733 0.707258 1.87476 126 113 97
-1.24313 0.690205 2.04272 140 127 109
-1.17151 0.694797 1.98938 117 103 90
-1.08267 0.698868 1.95557 163 150 134
-0.885823 0.718095 1.77793 151 138 122
-0.872493 0.711022 1.78888 154 141 125
-0.87915 0.720032 1.76805 160 146 133
-0.643533 0.743621 1.5867 161 147 134
-1.33721 0.687129 2.02651 158 146 132
-1.27793 0.689766 2.03672 164 150 137
-1.22958 0.690919 1.97281 111 99 85
-1.1384 0.705405 1.9022 164 151 135
-1.05375 0.704647 1.8483 151 138 122
-0.874462 0.724263 1.65042 153 139 126
-0.874462 0.724263 1.65042 153 139 126
-0.745719 0.729266 1.63043 153 139 126
-0.676194 0.740463 1.57487 187 173 160
-1.45085 0.684075 2.03734 117 104 88
-1.44752 0.687089 2.04397 117 104 88
-1.35118 0.696052 2.01373 157 148 133
-1.29189 0.698476 1.94356 160 148 136
-1.30731 0.701596 1.92426 140 127 111
-1.22016 0.705147 1.91393 127 115 101
-1.22182 0.715245 1.9111 169 157 141
-1.15592 0.718571 1.82293 179 166 150
-1.03168 0.720906 1.73283 157 141 125
-0.860927 0.733671 1.64899 154 140 127
-1.47838 0.691841 1.96447 179 166 150
-1.42668 0.69409 1.97977 166 152 139
-1.43589 0.696266 1.94846 178 164 151
-1.44037 0.691128 1.93742 178 164 151
-1.36211 0.698721 1.94617 148 134 121
-1.28817 0.699857 1.88105 192 179 164
-1.29082 0.7079 1.88952 153 139 126
-1.27554 0.721137 1.89683 195 182 166
-1.31146 0.712507 1.85376 184 171 155
-1.23512 0.713302 1.82192 144 131 115
-1.21615 0.71445 1.8188 198 185 169
-1.23345 0.714764 1.79643 147 134 118
-1.21239 0.715506 1.7863 180 167 151
-1.09336 0.730097 1.70916 157 142 124
-1.0762 0.729076 1.70133 160 144 129
-1.49808 0.696794 1.9204 147 134 118
-1.44316 0.708749 1.89549 171 158 142
-1.37277 0.713527 1.87008 148 135 119
-1.34589 0.716503 1.81991 177 164 148
-1.32073 0.713843 1.81254 147 134 117
-1.29985 0.712889 1.8251 161 146 130
-1.16863 0.731227 1.74647 145 132 116
-1.11502 0.737029 1.64354 179 166 150
-1.40865 0.715344 1.79894 175 162 146
-1.3464 0.720581 1.75746 185 172 156
-1.18537 0.732717 1.65657 160 147 131
-1.1792 0.736587 1.63551 154 141 125
-1.03064 0.747455 1.50852 189 175 162
-1.471 0.709824 1.79853 170 156 143
-1.31677 0.724787 1.7151 148 136 112
-1.28669 0.729921 1.69736 133 120 104
-1.0692 0.747972 1.53985 188 172 156
-1.08457 0.748308 1.52055 187 171 158
-0.980562 0.750862 1.43894 176 162 149
-0.912537 0.750618 1.38932 187 173 160
-0.911221 0.753592 1.3414 168 156 142
-1.46718 0.719529 1.7632 156 143 127
-1.44297 0.723232 1.72269 195 182 166
-1.32643 0.733624 1.64732 148 135 119
-1.20668 0.745568 1.54429 148 134 121
-1.19867 0.745931 1.53951 138 124 111
-1.18633 0.740921 1.54052 176 162 149
-1.0867 0.754749 1.47622 144 130 117
-1.07787 0.753229 1.4507 153 139 126
-1.47544 0.727518 1.67884 148 135 119
-1.14731 0.751163 1.44214 175 161 148
-1.07118 0.765126 1.33789 127 114 98
1.13313 -1.7215 2.78227 0 0 0
0.967121 -1.60281 2.74933 233 238 244
-1.28461 -0.793204 1.99669 58 64 62
0.445442 -1.46575 3.35317 75 75 76
0.446 -1.46606 3.35385 75 75 76
0.382406 -1.21547 2.7392 78 71 65
9.03536 -8.60506 21.6128 26 36 27
-1.32304 -0.688947 2.05248 28 33 29
-1.27784 -0.704073 2.10851 29 31 28
-1.33644 -0.621561 2.04444 56 56 45
0.596913 -1.61417 4.75482 72 69 64
-1.35673 -0.575353 2.00372 64 58 39
-1.36108 -0.566037 2.00089 63 60 41
-1.30492 -0.573488 2.00859 58 54 42
-1.36618 -0.542715 2.00219 75 69 55
-1.31797 -0.539152 2.00937 56 62 48
-1.29255 -0.553704 2.01219 60 53 45
0.546242 -1.3543 4.52748 35 32 27
-1.37086 -0.502687 2.00663 46 48 34
0.624097 -1.45124 5.10387 70 64 64
-1.3752 -0.450724 2.00858 108 99 82
-0.572209 -0.626616 2.60183 39 27 29
-0.738538 -0.553749 2.35128 238 222 209
-1.00693 -0.503146 2.36122 61 57 48
-0.52718 -0.544474 2.32632 219 201 181
-1.33308 -0.368203 2.02498 54 55 47
-1.38158 -0.318933 2.02597 132 123 108
-1.38166 -0.318979 2.02593 132 123 108
-1.35599 -0.297045 2.02521 201 194 168
0.123939 -0.531521 3.26119 25 16 17
0.145916 -0.364977 2.38173 110 93 80
-1.16111 -0.26415 2.14586 19 15 11
-0.132996 -0.291837 2.29016 98 83 69
-0.878427 -0.263977 2.37853 36 25 18
-0.105303 -0.277151 2.29984 163 135 116
-1.3753 -0.20993 2.03776 134 125 108
-1.20815 -0.197458 2.0961 78 71 53
-0.915343 -0.24034 2.37805 17 11 0
-0.201654 -0.233441 2.34544 14 14 12
-0.46936 -0.203001 2.67047 25 22 21
0.672694 -0.323008 3.93916 33 23 22
-0.489041 -0.143853 2.59009 38 28 26
-0.430906 -0.14042 2.57402 36 26 25
-0.20339 -0.145791 2.68371 29 23 23
0.611996 -0.104572 2.77811 61 47 44
-1.39458 -0.0847612 2.05801 143 141 118
-1.38792 -0.0712735 2.05646 99 87 71
-1.38792 -0.0712735 2.05646 99 87 71
-0.850892 -0.0741325 2.39216 10 9 7
-1.29104 -0.0305354 2.07095 243 228 189
-0.988272 -0.0521176 2.41001 92 65 48
-0.208083 0.0155831 2.57366 63 56 48
-1.38812 -0.0261037 2.06231 115 107 86
-1.38799 -0.0169859 2.06306 114 106 85
-1.32473 -0.0298943 2.06392 240 225 194
-1.29685 -0.00966988 2.07193 198 187 157
0.0207507 0.0530276 2.37143 82 74 62
0.221035 0.15096 2.44167 27 24 15
-1.37479 0.0308536 2.06882 137 123 96
-1.144 0.0780412 2.22144 21 12 3
-0.791788 0.121006 2.41074 101 81 56
-1.39279 0.0827928 2.07578 211 204 160
-0.0870831 0.23209 2.34601 123 104 88
-1.39018 0.117896 2.07663 162 149 125
-1.29858 0.110459 2.08785 123 111 97
-0.358963 0.230112 2.6201 39 29 28
-0.198317 0.245087 2.37505 33 26 18
-1.39034 0.129689 2.07881 153 143 117
-1.38744 0.130458 2.08495 153 143 117
-1.12231 0.182863 2.2856 7 0 0
-0.215598 0.301572 2.69603 30 22 20
-1.39073 0.165821 2.08267 159 148 129
-1.30591 0.176345 2.09587 165 153 139
-1.22488 0.194811 2.13034 155 139 111
-1.17069 0.202619 2.19865 211 194 171
-1.38985 0.207372 2.08901 80 69 53
-1.38942 0.20816 2.0904 80 69 53
-1.39541 0.21233 2.09248 167 155 141
-1.18686 0.23522 2.17844 180 164 138
-0.824461 0.322112 2.42284 55 49 37
-1.40843 0.239229 2.09605 101 93 71
-0.051873 0.454687 2.25446 101 38 18
-0.0961539 0.444378 2.16634 147 162 74
0.0611555 0.456173 2.2405 10 24 0
0.0900092 0.446459 2.16635 5 8 0
-0.75751 0.426845 2.42469 115 103 87
-0.00896896 0.477866 2.14076 227 77 62
-1.2902 0.318568 2.10791 54 44 32
-0.219422 0.523351 2.15812 136 155 84
-0.0648737 0.524636 2.26694 44 28 10
-0.193784 0.53439 2.08602 131 154 84
-0.218339 0.554299 1.98517 84 104 47
-1.24279 0.441839 2.1333 43 34 26
-0.186006 0.645897 2.1644 9 12 3
-1.35384 0.43855 2.09866 155 144 122
-1.22531 0.465607 2.14886 216 204 180
-0.287255 0.683268 2.22334 84 65 50
-0.674771 0.666566 2.26436 196 177 162
-0.952426 0.657177 2.318 159 146 130
-0.370403 0.697389 2.01593 185 169 154
-0.38564 0.703578 1.90891 144 128 112
-1.40943 0.531337 2.11551 158 148 131
-1.40938 0.531402 2.1157 158 148 131
-0.38358 0.716812 1.84127 128 114 101
-1.42961 0.545272 2.12124 176 168 149
-1.42363 0.550139 2.12002 123 112 92
-1.36323 0.576992 2.11608 53 47 35
-1.42941 0.57524 2.12628 87 80 62
-1.41964 0.614604 2.10639 66 60 48
-1.20428 0.674093 2.13537 130 120 108
-0.575192 0.737998 1.63664 185 171 158
-1.30266 0.684012 2.06985 133 121 107
-1.13949 0.692692 2.0036 114 101 86
-1.13929 0.693001 2.00408 114 101 86
-1.19133 0.676228 1.91734 163 149 136
-1.08381 0.699264 1.96899 124 111 95
-1.08616 0.706896 1.97193 171 158 142
-1.08616 0.706896 1.97193 171 158 142
-0.878686 0.721917 1.76079 183 169 156
-0.8141 0.716846 1.78259 180 166 153
-1.30775 0.692191 2.01549 153 141 129
-1.16161 0.706214 1.94698 139 126 110
-1.12007 0.706199 1.91895 147 134 118
-1.09537 0.697673 1.8839 192 179 163
-1.11211 0.698382 1.83624 176 163 147
-0.870579 0.721541 1.72864 199 185 172
-0.870579 0.721541 1.72864 199 185 172
-0.757597 0.738742 1.63857 185 171 158
-0.75929 0.735195 1.59596 162 148 135
-0.767547 0.73889 1.5898 188 174 161
-1.40976 0.689967 1.97652 130 116 103
-1.25869 0.700197 1.92994 124 112 100
-1.11819 0.716631 1.8241 180 168 152
-0.777265 0.745544 1.59171 161 147 134
-0.721138 0.741196 1.53342 154 140 127
-1.40157 0.695108 1.95368 136 123 107
-1.4653 0.70504 1.91617 168 155 139
-0.891425 0.744995 1.51954 159 143 130
-1.33991 0.716468 1.77817 145 132 116
-1.42504 0.72341 1.7998 169 156 140
-1.44348 0.716416 1.75361 173 160 144
-1.19068 0.741707 1.57912 192 179 163
-1.35071 0.728785 1.67957 145 129 114
-1.29836 0.732462 1.62881 172 159 143
-1.19795 0.748347 1.51251 178 164 151
-1.37882 0.739649 1.56454 172 159 143
0.450418 -1.58648 3.42779 164 189 220
-1.32965 -0.733171 2.0557 55 60 56
-1.33527 -0.706795 2.06413 36 42 38
0.550807 -1.53074 4.41944 41 35 35
-1.25281 -0.577142 2.02591 70 58 46
-0.199576 -0.536085 2.29254 247 232 211
-1.37894 -0.351937 2.02023 43 41 29
-1.36393 -0.369252 2.02198 35 29 17
-1.36396 -0.36927 2.02196 35 29 17
0.0589909 -0.46566 2.3219 36 29 26
0.092597 -0.3501 2.35686 16 11 6
-1.36725 -0.277075 2.03094 145 132 114
0.0586918 -0.335855 2.33645 140 114 97
-1.38369 -0.221345 2.03864 158 147 129
-1.29418 -0.247103 2.04776 159 150 118
-0.177188 -0.292043 2.68033 63 48 41
-0.134763 -0.238521 2.29358 112 89 71
0.15009 -0.254978 2.40294 130 112 98
-1.36876 -0.19293 2.04051 177 166 138
-1.29373 -0.204514 2.05194 138 126 100
0.0124401 -0.231515 2.31707 22 15 5
-1.19358 -0.17261 2.11916 114 99 73
-0.172678 -0.209099 2.51772 17 12 4
-0.167191 -0.212055 2.52366 17 12 4
-1.29589 -0.149773 2.05525 51 47 40
0.15226 -0.142941 2.41917 155 124 103
-1.37299 -0.100695 2.05224 169 158 137
-0.191853 -0.0745452 2.56513 24 19 16
-0.196346 -0.0353684 2.6172 26 18 15
0.0115391 0.00127562 2.35922 114 101 87
-0.700192 -0.0356522 2.3912 127 95 72
0.293131 0.0747532 2.46424 21 28 12
-1.3883 0.049062 2.07226 113 105 86
-1.20653 0.0987598 2.13945 218 201 175
-1.3959 0.159251 2.08298 201 189 167
-1.37777 0.184466 2.09106 90 80 63
-1.37777 0.184466 2.09106 90 80 63
-1.21709 0.186243 2.13421 230 216 189
-1.39646 0.223886 2.09349 209 200 183
-1.37835 0.284111 2.09644 124 121 102
-0.0261772 0.499077 2.18394 126 153 79
-0.000792394 0.499308 2.13024 10 7 0
-0.0202458 0.516061 2.11208 14 17 4
-1.40199 0.301976 2.08981 216 204 180
-0.713193 0.462442 2.43228 148 138 124
-0.331931 0.548722 2.66999 190 174 151
-0.216255 0.56072 2.71909 56 50 47
-0.0421802 0.532249 2.07477 12 17 8
-1.41204 0.468352 2.10837 195 180 157
-1.41227 0.468295 2.10781 195 180 157
-1.36131 0.480643 2.10594 141 129 107
-1.36244 0.480152 2.10361 141 129 107
-1.2905 0.520063 2.12274 197 180 159
-0.733526 0.701583 1.94578 159 143 128
-1.2746 0.640453 2.11614 136 130 114
-1.17568 0.670452 2.17533 144 134 119
-1.29769 0.669758 2.11169 69 61 50
-1.26865 0.687731 2.05838 104 91 76
-1.44149 0.678126 2.08236 148 136 122
-0.817733 0.732373 1.66544 200 186 173
-1.45642 0.685812 2.0228 161 148 132
-0.940737 0.729049 1.70669 189 175 162
-1.26272 0.713156 1.81296 180 167 151
-1.38693 0.714563 1.79651 161 148 132
-1.30657 0.719909 1.7602 145 132 116
-1.3058 0.721084 1.76199 145 132 116
-1.49225 0.722313 1.7369 146 132 119
-1.30683 -0.812976 2.04785 34 38 37
-1.3173 -0.744726 2.06263 26 30 29
0.394845 -1.10194 2.97193 54 50 49
0.613525 -1.46471 5.08582 58 54 51
0.686626 -0.5853 2.50927 23 19 18
-0.405958 -0.440598 2.59857 17 13 12
-0.114457 -0.513432 3.01497 0 0 0
-0.410001 -0.425149 2.56874 90 77 68
-0.219254 -0.423953 2.54485 71 57 54
-0.357152 -0.40228 2.64244 0 0 0
-1.17688 -0.281684 2.13154 141 115 77
-0.205667 -0.323455 2.46584 71 61 52
-0.201901 -0.273657 2.36525 49 42 34
0.133771 -0.222126 2.38588 115 99 84
-1.37975 -0.0797046 2.04978 209 195 168
0.305048 -0.0173949 2.34531 148 151 111
-1.3715 -0.0375011 2.06042 79 71 52
-1.3715 -0.0375011 2.06042 79 71 52
-0.164636 0.0435043 2.63781 59 50 43
-0.697339 0.0798754 2.41294 144 108 81
-0.436905 0.258626 5.00656 156 143 122
0.12092 0.25729 2.42321 176 159 141
-0.993104 0.155926 2.42924 93 72 51
-0.149604 0.295655 2.59577 61 60 56
-1.39747 0.193107 2.09222 170 159 141
-1.03137 0.271947 2.43194 42 37 28
-0.732599 0.328879 2.41211 161 151 138
-0.7323 0.329052 2.41254 161 151 138
-0.39855 0.377444 2.67689 38 31 25
-1.39658 0.281951 2.1018 127 114 97
0.00535605 0.516116 2.09333 14 18 9
-0.0836264 0.53208 2.0444 124 148 72
-0.208545 0.620737 2.01446 12 21 0
-1.40673 0.447617 2.10957 84 75 66
-1.14119 0.553306 2.25281 40 37 28
-0.653823 0.661635 2.26649 208 191 176
-0.463397 0.70678 1.94954 181 165 150
-0.367387 0.70339 1.82405 179 165 152
-1.36213 0.674964 1.98127 118 106 92
-0.876218 0.723472 1.74055 149 135 122
-0.864311 0.734051 1.63035 163 149 136
-0.711129 0.746102 1.50739 148 134 121
-1.49661 0.685364 1.89973 181 168 152
-1.42851 0.700557 1.87501 136 122 109
-1.32001 -0.780606 2.05475 53 55 54
0.438614 -1.46245 3.18124 0 0 0
9.10314 -8.6425 21.2258 26 33 26
-1.34996 -0.467749 2.02219 71 64 48
-1.34777 -0.468811 2.024 71 64 48
-0.495652 -0.421079 2.54663 85 73 68
-1.30541 -0.312771 2.0337 60 63 54
-0.700147 -0.239755 2.36262 29 25 22
-0.182793 -0.235701 2.48731 17 13 10
-1.37269 -0.136616 2.03779 177 166 149
-1.3704 -0.137131 2.04349 177 166 149
-1.23643 -0.132059 2.09031 122 107 76
-1.38646 -0.103532 2.05017 168 156 132
0.260698 0.00135694 2.24031 109 105 68
-1.38313 -0.0384855 2.06537 89 79 67
-0.219186 0.00353554 2.56652 62 55 46
-0.207019 0.0738739 2.47001 26 23 16
-1.00605 0.0345324 2.41949 26 31 26
-0.431927 0.104258 2.58298 63 48 49
-0.354519 0.285479 2.7693 70 69 65
-1.38964 0.184043 2.08917 93 83 67
-0.40869 0.379688 2.71303 182 166 150
-0.40869 0.379688 2.71303 182 166 150
-1.02023 0.332758 2.3591 72 62 52
-0.158811 0.54369 2.61072 132 125 117
-0.20436 0.576349 2.08008 14 26 4
-1.01573 0.559836 2.44523 180 168 146
-1.01573 0.559836 2.44523 180 168 146
-1.40046 0.459266 2.10878 154 146 128
-1.16627 0.689067 2.04426 177 163 150
-1.45009 0.684451 2.04922 151 137 124
-1.45012 0.684598 2.04923 151 137 124
-1.44278 0.716849 1.82558 166 153 137
-1.11492 0.754846 1.41257 149 135 122
-0.268858 -0.681015 2.57932 27 23 24
0.557989 -0.598118 3.70981 14 15 10
-0.194266 -0.319776 2.46499 64 50 39
-0.177302 -0.274078 2.48923 83 69 58
-0.070185 -0.0507041 2.64573 68 52 44
-0.152292 0.0436272 2.33128 57 47 48
0.263964 0.0750975 2.26915 14 15 7
-0.177151 0.0908141 2.53141 86 72 61
-0.992941 0.0688993 2.41454 96 68 48
-1.38755 0.0713456 2.06995 87 80 62
-0.589102 0.407406 2.6161 0 0 0
-1.19564 0.406504 2.15138 211 192 162
-0.777895 0.719546 1.77523 155 141 128
-1.24755 0.720137 1.77426 179 166 150
-1.19889 0.721497 1.73745 177 164 148
0.469166 -1.02242 2.68839 124 97 86
-0.864537 -0.528303 2.34898 44 39 35
-0.158477 -0.358708 2.66751 53 43 44
-0.194084 -0.301765 2.51637 24 20 19
-0.428326 -0.178712 2.61093 20 19 15
0.10382 -0.100959 2.39546 107 80 56
-1.24541 -0.117656 2.08086 147 119 87
0.143659 0.0547758 2.4515 27 22 19
-0.411121 0.183314 2.68602 65 66 60
-0.405856 0.403334 2.67002 58 49 40
-0.368923 0.491663 2.68125 202 185 165
-1.12115 0.623558 2.24535 68 61 51
-1.40018 0.618574 2.09966 65 59 46
-1.26723 0.684471 2.07631 126 114 100
-1.12416 0.695619 1.97777 166 153 137
-1.41641 0.680848 2.09017 161 149 135
-1.26619 0.717262 1.7724 175 162 146
-0.904932 -0.527263 2.36526 31 23 20
-1.33753 -0.333466 2.02361 133 117 91
-0.197775 0.586046 2.27527 48 42 30
-0.697576 0.660289 2.33479 159 146 130
-1.40375 0.563186 2.12624 180 169 147
-1.40407 0.56299 2.12569 180 169 147
-1.45295 0.710613 1.84043 161 148 132
-1.01761 -0.317147 2.30454 65 47 37
0.376611 -1.18419 2.70705 72 62 60
-1.35135 0.701031 1.91697 167 154 137
-0.193135 0.255337 2.92955 66 59 53
0.668912 -0.136547 2.74019 26 21 18
-0.0965552 0.348971 2.36066 0 0 0
-1.0941 -0.325575 2.1505 43 40 33
0.947508 -1.53633 3.81332 33 31 32
0.682423 -1.46051 2.62445 68 69 65
0.426909 -1.498 3.14282 44 45 46
0.704797 -0.699151 2.55716 70 60 57
-0.53647 0.699037 2.06672 138 125 112
-1.22775 0.162698 2.10239 187 175 145
-0.104135 0.495945 2.36794 72 68 57
0.617323 -0.291502 2.76014 52 45 41
0.687667 -0.552195 2.64903 25 21 18
-0.201839 -0.846142 2.58525 48 46 43
-0.845902 0.729374 1.683 200 186 172
-1.36874 0.561621 2.11329 115 103 86
-0.920937 -0.440112 2.36237 74 62 52
-1.15884 0.756638 1.42628 142 130 114
-0.912324 0.760713 1.32472 143 130 117
0.384504 -0.834482 2.7385 22 20 17
-0.924595 0.720488 1.79914 188 175 159
-0.18376 -0.49043 2.27779 125 118 109
-0.475599 -0.812446 2.9526 217 205 205
-0.373762 -0.438485 2.60254 0 0 0
0.489244 -1.59278 2.82466 0 0 0
-0.178981 -0.147077 2.73578 35 24 24
-1.34584 0.250407 2.09042 171 157 131
8.41064 -9.20575 18.4183 37 50 40
-1.32629 -0.803579 2.01129 83 88 82
0.361012 -1.34519 2.66659 61 63 62
0.655047 -1.31603 2.4644 53 52 47
-1.36139 -0.716244 2.05984 56 61 65
-1.32509 -0.691803 2.0649 66 71 67
-1.32472 -0.691711 2.06569 66 71 67
0.543061 -1.61355 4.03761 66 66 66
-1.35669 -0.681218 2.0839 77 89 75
0.455566 -1.29849 3.38229 25 25 25
0.441957 -1.30135 3.304 71 73 72
0.4394 -1.22002 3.13676 23 21 22
-1.35214 -0.641562 2.06827 27 29 23
-1.38029 -0.59946 2.02025 212 193 161
-1.3414 -0.633711 2.04918 31 34 27
0.551741 -1.48896 4.23035 47 43 42
0.463773 -1.33027 3.57186 47 44 40
0.437391 -1.22488 3.24358 20 20 20
0.680089 -1.04282 2.66337 72 74 73
-1.414 -0.581954 2.00119 186 171 140
-1.41191 -0.569307 2.00171 74 68 56
0.62536 -1.63943 4.94608 81 80 81
0.601212 -1.55614 4.73905 37 36 32
0.566992 -1.49432 4.40858 70 65 62
0.409694 -1.08627 2.98386 23 19 20
0.414589 -1.01549 2.89461 60 55 52
0.707686 -0.988206 2.54099 28 23 19
-1.39137 -0.55739 2.00267 27 21 10
-1.39137 -0.55739 2.00267 27 21 10
-1.39715 -0.54884 2.0041 129 125 113
-1.39126 -0.549306 2.00422 21 17 5
-1.39126 -0.549306 2.00422 21 17 5
-1.19259 -0.596998 2.07793 211 200 169
0.552509 -1.39606 4.31572 25 19 19
-1.39273 -0.522227 2.00571 21 21 13
-1.27159 -0.536607 2.02336 73 75 60
0.462118 -1.00664 3.18764 14 14 12
0.683547 -0.855404 2.54721 29 30 27
-1.41603 -0.480979 2.01276 31 31 21
-1.38687 -0.504329 2.00772 123 120 109
-1.38731 -0.495682 2.00777 102 98 87
-1.40501 -0.47739 2.01137 170 163 142
-1.38749 -0.489042 2.0098 102 106 92
-1.29506 -0.488798 2.02224 37 36 29
-1.20379 -0.526293 2.06685 65 66 52
-1.19558 -0.523326 2.0716 99 100 86
0.495923 -1.12493 3.87391 22 10 4
0.431467 -0.87603 3.05804 34 25 20
-1.41717 -0.460207 2.01514 66 60 48
-1.41717 -0.460013 2.01518 66 60 48
-1.30136 -0.476111 2.01832 37 37 22
0.407579 -0.861573 3.07643 71 63 57
0.428524 -0.830651 3.00505 41 31 21
0.396988 -0.756994 2.77968 86 72 61
0.679709 -0.763987 2.58393 29 24 25
0.718757 -0.764213 2.60149 51 47 44
-1.41735 -0.44031 2.01631 78 75 58
-1.40354 -0.428113 2.01568 86 89 68
-1.37674 -0.428807 2.0138 104 106 85
0.237483 -0.82207 3.24472 18 16 13
0.67322 -0.713127 2.63802 15 15 13
-1.28642 -0.41582 2.02878 97 86 70
-0.956799 -0.482568 2.36136 82 68 55
-0.957052 -0.482562 2.36093 82 68 55
-0.729187 -0.519336 2.32932 121 108 92
-0.381484 -0.512406 2.29277 108 99 82
-0.239414 -0.502395 2.27698 149 140 128
-0.0151794 -0.53436 2.2978 165 149 134
0.711077 -0.652361 2.54834 21 20 15
-1.41389 -0.374005 2.02541 107 110 94
-0.937573 -0.472156 2.35908 92 78 68
-0.887299 -0.451081 2.35339 69 63 51
-0.652997 -0.479704 2.33177 36 35 33
-1.39157 -0.355681 2.02285 17 16 4
-1.39596 -0.352847 2.02476 140 138 123
-1.39069 -0.343388 2.02447 42 44 31
-1.39072 -0.343363 2.02445 42 44 31
-1.36582 -0.349511 2.02214 62 55 45
-0.785518 -0.442013 2.34396 23 20 17
0.700866 -0.533884 2.58839 49 43 35
-1.40931 -0.303856 2.03109 90 81 64
-0.913221 -0.384737 2.3651 59 52 46
0.578088 -0.599583 3.63142 25 12 9
-0.753165 -0.342467 2.35749 67 56 50
-0.691347 -0.28942 2.3758 49 44 38
-1.43562 -0.216148 2.0494 154 144 117
-1.4254 -0.217147 2.04595 111 100 77
-1.39028 -0.21958 2.03821 94 91 72
-1.29684 -0.237942 2.04588 164 148 123
-1.25607 -0.219475 2.06731 128 107 86
-1.14623 -0.257774 2.17694 62 45 32
-1.36924 -0.208051 2.0352 144 134 117
-0.940497 -0.216083 2.38757 19 5 0
-1.3433 -0.158445 2.04775 153 138 115
-1.2669 -0.174223 2.06517 104 87 59
-0.940215 -0.210913 2.38966 20 10 0
-0.914032 -0.186325 2.3913 16 12 11
-1.41291 -0.143418 2.0525 157 149 130
-1.36509 -0.145211 2.04688 161 150 130
-1.37722 -0.130956 2.04802 164 154 129
-1.42543 -0.119819 2.0583 178 164 138
-1.42317 -0.114452 2.05801 140 128 104
-0.838943 -0.0977598 2.39338 106 75 55
-1.43264 -0.0719616 2.06523 166 144 130
-1.43147 -0.0576217 2.06748 167 155 131
-1.38828 -0.0494203 2.0581 89 77 63
-0.858946 -0.0459564 2.39427 79 61 46
-0.0853223 0.0464065 2.3364 8 7 2
-0.0853223 0.0464065 2.3364 8 7 2
-1.25646 -0.00370555 2.08797 142 123 91
-1.17637 0.0138533 2.16625 225 203 179
-1.42758 0.00618086 2.0699 127 113 87
-1.42311 0.00128467 2.07071 168 153 130
-1.40834 0.0128905 2.07075 169 157 133
-1.38902 0.00589593 2.06652 96 89 70
-1.34872 0.0160709 2.0575 148 129 99
0.0121236 0.108166 2.38326 108 96 80
0.271227 0.138908 2.49337 71 74 61
-1.26761 0.0539673 2.08946 196 174 144
-0.787154 0.0980816 2.41504 120 95 80
-1.3669 0.0670307 2.07245 144 130 112
-1.33319 0.081384 2.07842 188 177 155
-0.759989 0.146569 2.41854 17 7 0
-0.759985 0.146575 2.41847 17 7 0
-1.36961 0.108499 2.0753 152 137 116
0.314201 0.293627 2.30204 29 36 28
-1.15409 0.174191 2.21817 12 5 3
-0.812672 0.242807 2.42814 45 18 10
-0.806677 0.269747 2.4168 41 27 26
-1.38813 0.197942 2.08991 75 63 47
-0.063107 0.434891 2.32434 15 22 0
0.103994 0.437178 2.16977 180 191 148
-1.36229 0.232342 2.0896 189 174 145
-1.31494 0.239479 2.09705 164 144 111
-1.26663 0.260935 2.1143 155 136 112
-1.21784 0.255429 2.14091 246 230 207
0.0182736 0.470693 2.18682 246 95 95
0.0800213 0.454128 2.11326 78 82 54
-1.38341 0.270829 2.09486 147 136 118
-1.30789 0.274092 2.09981 146 134 112
-0.0115205 0.502117 2.08836 79 99 46
-1.40048 0.310523 2.0877 36 32 20
-0.0466547 0.534116 2.04341 165 187 131
-1.42451 0.334055 2.09523 176 164 148
-1.3338 0.347406 2.09068 135 126 97
-0.223698 0.604113 2.48779 49 55 42
-0.181593 0.546054 1.98064 13 37 0
-1.3142 0.3742 2.09432 125 113 89
-0.2143 0.607628 2.35986 35 32 23
-0.369842 0.65401 2.45096 170 150 134
-0.420951 0.662965 2.4116 220 200 179
-0.280458 0.661451 2.39108 140 122 108
-0.215819 0.610418 1.99192 10 22 0
-1.3794 0.434855 2.09984 134 119 102
-1.33108 0.43148 2.1 138 125 103
-0.377394 0.679868 2.17976 210 191 173
-1.39624 0.454876 2.10934 132 126 114
-1.37492 0.472788 2.10405 117 107 82
-0.814415 0.648724 2.36911 165 153 139
-0.734313 0.643248 2.4044 48 42 30
-0.395672 0.688012 2.1657 198 179 164
-0.441894 0.68712 2.12773 168 149 134
-1.22263 0.558038 2.15876 199 188 164
-1.17908 0.553325 2.20211 195 184 167
-0.66716 0.678241 2.16107 173 154 137
-0.573764 0.689849 2.07558 162 146 131
-0.412826 0.697904 2.01753 141 125 110
-0.354564 0.709034 1.97557 160 144 128
-0.377902 0.709761 1.94695 154 138 122
-0.294223 0.704955 1.93433 151 136 120
-1.44278 0.525389 2.12443 123 110 94
-1.44289 0.524954 2.12431 123 110 94
-1.43319 0.526571 2.1202 140 127 110
-1.26989 0.560047 2.13023 188 175 153
-0.653471 0.695295 2.02011 177 161 145
-0.62031 0.698324 1.98564 202 186 171
-0.427893 0.705384 1.92546 181 165 150
-1.43965 0.539575 2.12403 131 119 103
-1.44559 0.556381 2.13205 138 125 107
-1.43458 0.561783 2.12463 115 108 88
-1.43373 0.562088 2.12527 115 108 88
-1.40298 0.550222 2.11491 126 116 93
-1.04364 0.670338 2.2117 138 127 105
-1.43983 0.572092 2.12879 80 74 49
-1.41777 0.572326 2.12154 113 104 87
-1.39886 0.580011 2.12488 149 138 118
-0.988879 0.692486 2.10021 167 156 136
-0.983696 0.682843 2.06942 158 146 124
-0.889299 0.693441 2.05122 207 191 175
-0.9357 0.688279 1.99627 191 175 159
-0.566316 0.731115 1.80816 183 167 154
-1.23467 0.676497 2.13036 152 140 126
-1.12969 0.689487 2.03869 122 109 92
-1.0773 0.686513 2.06197 191 178 162
-0.744108 0.718098 1.84048 142 128 115
-1.19148 0.691293 2.03529 132 119 104
-0.933719 0.711483 1.88412 178 165 149
-0.903368 0.718652 1.78591 167 154 138
-0.796795 0.725081 1.72591 193 179 166
-1.47071 0.659731 2.1291 68 65 58
-1.47093 0.659613 2.12839 68 65 58
-1.47577 0.671726 2.12123 90 80 70
-1.44922 0.670201 2.1221 37 33 25
-1.37434 0.679672 2.08448 113 101 87
-1.06987 0.711681 1.87145 149 136 120
-0.961042 0.719193 1.80319 158 145 129
-0.788901 0.732605 1.69133 189 175 162
-0.768372 0.73962 1.6063 157 143 130
-0.770236 0.738607 1.60412 157 143 130
-0.675721 0.739979 1.57504 182 168 155
-1.46613 0.67758 2.06132 158 146 130
-1.48196 0.674387 2.02136 108 95 79
-1.16724 0.700213 1.87505 161 149 133
-1.08377 0.711647 1.79826 149 136 119
-1.00749 0.725969 1.74031 148 135 119
-0.861462 0.733242 1.64853 152 138 125
-0.875815 0.73711 1.6428 152 138 125
-0.758239 0.740781 1.56797 149 135 122
-1.48074 0.685146 2.03447 171 158 142
-1.47384 0.690253 1.98311 164 151 135
-1.44143 0.691741 1.96962 125 115 100
-1.2558 0.712772 1.82533 155 142 126
-1.49791 0.696951 1.92133 138 125 109
-1.18295 0.724731 1.72273 192 179 163
-1.03544 0.742391 1.61607 188 175 159
-1.49386 0.698672 1.90356 131 118 102
-1.49747 0.70221 1.87534 139 126 110
-1.03694 0.747958 1.54519 130 117 101
-0.902223 0.753828 1.43813 149 135 122
-1.19389 0.736032 1.57964 150 137 121
-1.06034 0.749704 1.48613 145 131 118
-0.947587 0.756015 1.40466 186 172 159
-1.45212 0.721685 1.72683 179 166 150
-1.4516 0.722164 1.72778 179 166 150
-1.31974 0.732982 1.65074 183 171 155
-1.0657 0.749887 1.47865 215 201 188
-0.996326 0.761295 1.3882 106 92 79
-0.944047 0.75597 1.36955 171 157 144
-1.56262 0.7156 1.7969 126 114 98
-1.49171 0.721486 1.70258 135 122 105
-1.363 0.729244 1.59 131 119 103
-1.17525 0.75446 1.47589 148 134 121
-1.5671 0.715727 1.71325 184 174 159
-1.38485 0.737946 1.59672 172 159 143
-1.06746 0.758107 1.34846 111 97 84
0.512786 -1.58263 2.7573 236 244 252
1.02127 -1.61028 2.72053 72 73 77
0.50894 -1.43325 2.64112 0 0 0
-1.34545 -0.781352 2.0593 46 50 53
-1.31512 -0.780272 2.05523 63 69 67
0.426945 -1.45343 3.13532 86 78 75
0.394672 -1.23784 2.87353 29 25 22
0.531755 -1.59836 4.09119 35 35 35
-1.39359 -0.620568 2.0454 85 88 75
-1.367 -0.620202 2.04159 82 84 71
-1.35436 -0.62248 2.04387 61 64 53
-1.38169 -0.575887 1.99895 86 78 59
0.400443 -1.09528 3.01972 57 53 52
-1.38609 -0.538608 2.00357 141 143 129
-1.37313 -0.554539 2.00018 116 110 92
-1.37979 -0.515227 2.00573 62 58 47
0.550806 -1.35692 4.53302 35 31 29
0.567223 -1.33774 4.36168 60 56 55
-1.39896 -0.497936 2.01016 124 126 113
-1.37338 -0.508245 2.01344 100 99 87
0.142468 -0.937056 3.37453 23 22 20
0.394539 -0.855098 2.91312 37 34 25
0.690501 -0.824296 2.60362 26 22 18
-1.38257 -0.45333 2.01045 98 91 75
